50.6896 37.1051 1.0000
56.1103 40.5376 2.0000
55.3047 42.1943 2.0000
52.3059 34.1959 1.0000
43.2281 50.1592 2.0000
37.8497 46.3973 1.0000
40.2627 45.3294 1.0000
38.0153 52.2067 2.0000
42.7438 43.8832 1.0000
47.5674 48.0785 2.0000
45.3920 42.0258 1.0000
51.0292 46.0204 2.0000
48.1941 39.7441 1.0000
53.6097 44.0404 2.0000
32.0505 39.3302 2.0000
32.5885 47.3371 1.0000
30.0501 39.4357 2.0000
33.6688 39.1026 2.0000
35.3756 47.0960 1.0000
29.2063 47.0084 1.0000
27.5536 39.3304 2.0000
35.0561 38.8348 2.0000
24.5455 45.6619 1.0000
24.4562 38.9242 2.0000
36.3726 38.6072 2.0000
37.0535 38.5243 2.0000
20.3366 37.8195 2.0000
16.3172 41.5070 1.0000
13.5085 34.3894 2.0000
1.8315 32.4175 1.0000
1.9689 26.6997 2.0000
28.9994 34.4658 3.0000
25.6394 34.6713 3.0000
32.4981 33.4014 3.0000
22.3248 34.4994 3.0000
34.3062 32.4173 3.0000
37.7714 38.4268 2.0000
36.0500 31.1625 3.0000
20.6610 34.3998 3.0000
38.5406 38.2695 2.0000
19.0068 34.2506 3.0000
17.3838 33.9763 3.0000
15.8136 33.5012 3.0000
14.3176 32.7499 3.0000
12.9175 31.6467 3.0000
10.5092 28.3275 3.0000
8.8508 24.1644 3.0000
39.3756 38.0077 2.0000
40.2911 37.5965 2.0000
41.3014 36.9909 2.0000
37.6073 29.7013 3.0000
43.6952 34.9402 2.0000
38.8558 28.0980 3.0000
46.8259 31.1120 2.0000
39.6731 26.4168 3.0000
39.9371 24.7222 3.0000
50.9932 24.6860 2.0000
39.8276 23.8890 3.0000
24.5410 32.1349 4.0000
25.8826 31.8952 4.0000
23.1490 31.9996 4.0000
27.2678 31.1846 4.0000
21.6615 31.5874 4.0000
20.2297 31.0046 4.0000
19.0534 30.3597 4.0000
18.2795 29.7315 4.0000
17.8425 29.0814 4.0000
17.6237 28.3413 4.0000
17.5243 27.4402 4.0000
17.5247 26.2953 4.0000
17.6254 24.8211 4.0000
17.7193 23.9456 4.0000
17.8736 23.0272 4.0000
8.2227 20.0232 3.0000
18.1233 22.1267 4.0000
18.2949 21.7020 4.0000
8.3781 18.2161 3.0000
18.5036 21.3046 4.0000
8.8695 16.6478 3.0000
9.7049 15.3351 3.0000
10.8927 14.2947 3.0000
12.4411 13.5435 3.0000
18.7538 20.9421 4.0000
14.3583 13.0984 3.0000
19.1946 13.1306 3.0000
19.3959 20.3519 4.0000
19.7968 20.1394 4.0000
24.7796 14.2116 3.0000
24.4461 20.4582 4.0000
23.1516 20.0919 4.0000
25.7232 20.9658 4.0000
21.9029 19.8967 4.0000
20.7635 19.9025 4.0000
19.0497 20.6220 4.0000
27.9961 30.6286 4.0000
28.7108 29.9546 4.0000
29.3637 29.1865 4.0000
29.9068 28.3479 4.0000
30.2920 27.4627 4.0000
30.4713 26.5546 4.0000
30.4077 25.6457 4.0000
39.5593 23.0703 3.0000
39.1422 22.2681 3.0000
38.5864 21.4842 3.0000
37.9019 20.7206 3.0000
30.1083 24.7512 4.0000
37.0989 19.9790 3.0000
35.1773 18.5697 3.0000
29.5915 23.8844 4.0000
32.9021 17.2712 3.0000
28.8756 23.0587 4.0000
27.9788 22.2877 4.0000
30.3539 16.0987 3.0000
26.9194 21.5847 4.0000
24.9698 31.0845 5.0000
24.3551 30.9287 5.0000
23.7697 30.6922 5.0000
25.6131 31.0801 5.0000
26.2465 30.9079 5.0000
23.2047 30.4727 5.0000
22.9271 30.3950 5.0000
22.6514 30.3295 5.0000
22.3768 30.2596 5.0000
22.1022 30.1687 5.0000
21.8267 30.0403 5.0000
21.5495 29.8579 5.0000
20.9984 29.3068 5.0000
20.5036 28.5929 5.0000
20.1327 27.8358 5.0000
19.9432 27.1320 5.0000
19.9545 26.4857 5.0000
20.1762 25.8778 5.0000
20.6080 25.2988 5.0000
21.2094 24.7765 5.0000
21.9299 24.3483 5.0000
25.9347 24.7115 5.0000
25.1868 24.2173 5.0000
24.3825 23.9572 5.0000
23.5503 23.9102 5.0000
22.7220 24.0498 5.0000
26.8219 30.5787 5.0000
27.0728 30.3577 5.0000
27.2902 30.0969 5.0000
27.4674 29.7932 5.0000
27.5974 29.4433 5.0000
27.6733 29.0440 5.0000
27.6882 28.5922 5.0000
27.5257 27.5502 5.0000
27.1446 26.4508 5.0000
26.5980 25.4596 5.0000
23.0425 29.2938 6.0000
22.8532 29.1532 6.0000
22.7042 29.0011 6.0000
22.5936 28.8396 6.0000
22.5195 28.6705 6.0000
22.4798 28.4958 6.0000
22.4728 28.3175 6.0000
22.5497 27.9568 6.0000
22.7389 27.6007 6.0000
23.0303 27.2604 6.0000
23.2109 27.1009 6.0000
23.4117 26.9563 6.0000
24.9268 29.8452 6.0000
25.1573 29.8429 6.0000
25.3614 29.8074 6.0000
24.6714 29.8211 6.0000
25.5373 29.7321 6.0000
24.1049 29.7129 6.0000
23.5329 29.5343 6.0000
25.6836 29.6100 6.0000
25.7986 29.4346 6.0000
25.9272 28.9264 6.0000
25.9062 28.3014 6.0000
25.7173 27.6835 6.0000
25.3574 27.1808 6.0000
24.8826 26.8391 6.0000
23.6302 26.8346 6.0000
23.8634 26.7441 6.0000
24.1089 26.6928 6.0000
24.3637 26.6888 6.0000
24.8860 29.3125 7.0000
24.8141 29.3275 7.0000
24.9191 29.2988 7.0000
24.7391 29.3256 7.0000
24.6664 29.3061 7.0000
24.9496 29.2812 7.0000
24.6002 29.2689 7.0000
24.9766 29.2598 7.0000
24.5417 29.2166 7.0000
24.4908 29.1524 7.0000
24.4475 29.0797 7.0000
24.4121 29.0016 7.0000
24.3844 28.9214 7.0000
24.3649 28.8423 7.0000
24.3543 28.7670 7.0000
24.3538 28.6980 7.0000
24.3577 28.6666 7.0000
24.3646 28.6379 7.0000
24.3745 28.6120 7.0000
24.3876 28.5893 7.0000
24.9995 29.2346 7.0000
25.0177 29.2057 7.0000
25.0306 29.1733 7.0000
25.0388 29.0986 7.0000
25.0260 29.0148 7.0000
24.9951 28.9264 7.0000
24.9493 28.8384 7.0000
24.8916 28.7553 7.0000
24.8251 28.6820 7.0000
24.7529 28.6224 7.0000
24.6784 28.5778 7.0000
24.6049 28.5483 7.0000
24.4041 28.5701 7.0000
24.4241 28.5548 7.0000
24.5357 28.5344 7.0000
24.4744 28.5365 7.0000
41.5574 8.5852 2.0000
37.7881 7.3822 2.0000
33.8381 6.9688 2.0000
29.6060 6.9348 2.0000
48.9412 9.0360 1.0000
49.2381 16.2949 2.0000
45.3129 11.2926 2.0000
52.5464 12.4793 1.0000
45.5519 6.5333 1.0000
42.3428 4.8046 1.0000
39.2783 3.6835 1.0000
36.3226 3.0033 1.0000
25.4839 50.7026 2.0000
19.6878 48.2064 2.0000
11.6506 44.5317 2.0000
2.5005 39.5273 2.0000
1.1699 18.8744 2.0000
1.1677 11.9435 1.0000
7.3012 13.6379 2.0000
4.0011 8.1050 1.0000
12.2962 10.1996 2.0000
6.7141 5.4591 1.0000
9.3409 3.7753 1.0000
11.9157 2.8232 1.0000
16.3597 8.1853 2.0000
14.4728 2.3724 1.0000
27.8020 2.1507 1.0000
25.0066 6.9454 2.0000
33.4400 2.5976 1.0000
22.3316 2.0457 1.0000
19.6961 7.2209 2.0000
17.0464 2.1924 1.0000
22.5102 6.9323 2.0000
